# .PCD v0.7 - Point Cloud Data file format
VERSION 0.7
FIELDS x y z intensity
SIZE 4 4 4 4
TYPE F F F F
COUNT 1 1 1 1
WIDTH 1398
HEIGHT 1
VIEWPOINT 0 0 0 1 0 0 0
POINTS 1398
DATA ascii
7.9093237 3.4851298 -1.2285591 14
8.208601 -0.11748704 -1.2562211 11
7.3303957 -3.4854324 -1.1291914 18
7.9324555 3.5317566 -1.2311574 13
8.213933 -0.08601924 -1.2569773 10
7.324667 -3.4498498 -1.1306751 18
7.9619312 3.5765634 -1.2329047 13
8.1944246 -0.055778537 -1.2539523 10
7.3147039 -3.4109023 -1.1328521 18
7.9489222 3.6074636 -1.2268107 13
8.1995201 -0.024328537 -1.2547085 12
7.3086371 -3.3755167 -1.1342875 19
7.9317279 3.634778 -1.2215468 13
8.1845093 0.0042853993 -1.253868 12
7.2894859 -3.3327715 -1.1336013 19
7.9283681 3.666779 -1.2198842 13
8.1846504 0.035712503 -1.2524396 11
7.2819204 -3.3001611 -1.1349868 19
7.9423757 3.7086544 -1.219444 14
8.1943502 0.065789871 -1.2539523 11
7.2891159 -3.2697437 -1.1412561 18
8.3379707 9.6972084 -1.3013108 10
8.0005178 3.7732887 -1.2242919 14
8.1693249 0.09696006 -1.2501706 10
7.2733645 -3.2307079 -1.1411806 18
8.32586 9.7552233 -1.291424 10
8.0365982 3.8263762 -1.2256187 14
8.1738348 0.12840487 -1.250927 10
7.267045 -3.1945491 -1.1424985 19
8.3134317 9.8132725 -1.2814629 12
8.0356255 3.8638313 -1.2245526 14
8.1881351 0.15864983 -1.2531959 10
7.2645435 -3.1617291 -1.1445103 20
8.0576391 3.9108412 -1.2253056 13
8.1775827 0.18985935 -1.2516832 10
7.253355 -3.1237881 -1.1450711 23
8.0625029 3.9480343 -1.2217494 13
8.1615353 0.22084466 -1.2522644 11
7.2456288 -3.0890279 -1.1490753 23
8.0750113 3.9909189 -1.2226509 14
8.1656113 0.25090849 -1.2530223 11
7.2614388 -3.0628724 -1.1539236 22
8.1002913 4.0421872 -1.2223837 14
8.1648045 0.28226778 -1.2515965 11
7.3177075 -3.0550625 -1.1653196 22
8.0948429 4.0765939 -1.2189764 14
8.1587238 0.31342652 -1.2508394 11
7.4294024 -3.0682483 -1.1855217 22
6.6376338 -7.0117431 -1.1205593 1
8.0942364 4.1135483 -1.2114685 14
8.1678314 0.34376165 -1.2495 11
7.5182452 -3.072732 -1.1993417 22
6.6728935 -6.9974399 -1.1307269 1
8.1360846 4.1742015 -1.2168732 14
8.181263 0.37580162 -1.2517664 11
7.5473547 -3.0508616 -1.2093678 22
8.1478958 4.2180567 -1.2144256 14
8.1750412 0.40697765 -1.2495824 11
7.6313639 -3.0523279 -1.2254272 22
8.1364069 4.2518029 -1.2118772 14
8.173418 0.43836451 -1.2495824 11
7.6930118 -3.042773 -1.2378695 22
8.1788979 4.3122439 -1.2107019 14
8.1917143 0.46946234 -1.2511687 11
7.7584362 -3.0373743 -1.2496569 23
9.1339455 11.699332 -1.3063923 6
8.2007065 4.3677392 -1.2116797 14
8.1651831 0.49940395 -1.2474 11
7.8294897 -3.0290012 -1.2666247 22
6.439642 -6.5028911 -1.1188436 4
9.1263161 11.769817 -1.2977796 6
8.2129459 4.4092813 -1.2106786 14
8.1383266 0.52913469 -1.245055 11
7.9004683 -3.0216362 -1.2807511 21
6.4624629 -6.4782729 -1.1300238 4
9.1690073 11.9148 -1.2941893 6
8.2401104 4.4647083 -1.2122114 14
8.1560555 0.5603146 -1.2480732 11
7.9524741 -3.008162 -1.2919399 21
6.4713936 -6.4398451 -1.1355401 4
8.2376709 4.502521 -1.2059435 14
8.1890059 0.59417868 -1.2490565 11
7.9448118 -2.9704435 -1.2933768 21
6.4870448 -6.4082704 -1.1438553 4
8.2433805 4.5449605 -1.2042001 14
8.1915941 0.62599444 -1.2498084 12
7.8300519 -2.8948708 -1.2759405 22
6.527483 -6.4011164 -1.1549457 8
8.2841196 4.6070948 -1.2025224 14
8.199316 0.65682077 -1.2498767 12
7.8126297 -2.8543789 -1.2757633 33
6.522706 -6.3474855 -1.159464 8
8.3146849 4.6659832 -1.2027882 14
8.2070208 0.68916285 -1.2485043 12
7.8089581 -2.819098 -1.2778363 33
6.5309291 -6.3090477 -1.1648613 8
9.6603765 13.026697 -1.302006 15
8.3383951 4.7157159 -1.2050767 14
8.199173 0.72021872 -1.2491914 12
7.8085351 -2.7897117 -1.2792096 33
6.4637957 -6.1985569 -1.1567723 8
9.6560555 13.130711 -1.2913405 15
8.3580723 4.7731619 -1.203974 14
8.2065411 0.75118649 -1.2492537 12
7.8148599 -2.7551131 -1.2827861 32
6.359756 -6.0541973 -1.1450826 2
9.6234789 13.187411 -1.2733707 15
8.3668633 4.8189354 -1.2026423 14
8.213438 0.78363073 -1.2507526 12
7.828723 -2.727782 -1.2893391 18
6.33073 -5.9824891 -1.1436322 2
9.6009483 13.24858 -1.2589592 15
8.3817844 4.8646154 -1.1985116 14
8.2155037 0.81567204 -1.250061 12
7.8155684 -2.6895905 -1.2869399 16
6.3202367 -5.9267988 -1.1468481 4
8.4260979 4.937633 -1.2026035 14
8.2175941 0.84630674 -1.2493677 11
7.7973485 -2.6498787 -1.2851993 14
6.2976499 -5.8623867 -1.1464837 4
9.455267 13.246012 -1.217972 17
8.4531336 4.9912071 -1.201861 14
8.2243328 0.87892765 -1.2494196 11
7.7771459 -2.6142769 -1.2863017 14
6.2856007 -5.8083148 -1.1480091 7
8.4781485 5.047976 -1.201049 14
8.2260284 0.91106856 -1.2487218 11
7.7630472 -2.5764043 -1.2867125 13
6.2692957 -5.750793 -1.1517562 11
9.3164682 13.255992 -1.1756155 12
8.5361948 5.1270361 -1.2032346 13
8.218154 0.94069952 -1.2450886 11
7.768436 -2.5421181 -1.2902155 13
6.25776 -5.6961203 -1.1516269 13
9.2543707 13.270763 -1.1540411 12
8.5605259 5.1844387 -1.2022461 13
8.2146978 0.97227353 -1.2436448 11
7.7529011 -2.5086024 -1.289162 13
6.2482934 -5.6457663 -1.1550522 15
9.1978378 13.293277 -1.1360463 11
8.5593071 5.2266741 -1.1958799 13
8.2258434 1.0056348 -1.2444286 11
7.7676172 -2.477469 -1.2927895 13
6.2532916 -5.6087875 -1.1611315 21
8.6126795 5.302701 -1.1988835 12
8.2419405 1.0382764 -1.2459487 11
7.7717152 -2.4459393 -1.2962726 14
6.2157993 -5.5302954 -1.1574384 21
8.6646776 5.3807054 -1.2017688 12
8.2479162 1.0712173 -1.2459804 11
7.7476192 -2.4071825 -1.2907733 14
6.2547894 -5.5221038 -1.1681648 21
8.6920862 5.4419713 -1.1992558 12
8.2243528 1.1002851 -1.241569 11
7.72679 -2.3711674 -1.2917025 13
6.2574077 -5.4875994 -1.1726551 21
8.7315865 5.5113511 -1.2001781 12
8.2209072 1.1305096 -1.2372243 11
7.7080832 -2.3301437 -1.2883736 13
6.1815 -5.377285 -1.1616679 17
8.7558813 5.5673752 -1.1987075 13
8.2416096 1.1626835 -1.2394583 11
7.7110081 -2.3016825 -1.2903926 14
8.7751675 5.6313944 -1.1953472 13
8.2613525 1.2007835 -1.2416836 11
7.7335267 -2.2746341 -1.2983956 14
8.8217287 5.7070322 -1.1989577 12
8.2668924 1.2325455 -1.2416959 11
7.7978673 -2.264014 -1.3107712 14
8.8515644 5.7724633 -1.196539 12
8.267416 1.2650925 -1.2395114 11
7.7396283 -2.2149177 -1.302426 13
8.8725615 5.8326178 -1.1947519 12
8.2822561 1.2999288 -1.24098 10
7.705265 -2.1716576 -1.2980336 14
8.9338026 5.9221282 -1.1965804 12
8.2923012 1.332665 -1.2417108 10
7.689023 -2.1381366 -1.2940323 14
8.9748821 5.9968247 -1.1954825 12
8.2824554 1.3637267 -1.2395145 11
7.7017989 -2.1069736 -1.3004074 13
8.9803762 6.0436668 -1.1912282 12
8.2684965 1.3925745 -1.2322 12
7.7135077 -2.0827086 -1.3012111 13
9.0248365 6.1217656 -1.1904629 12
8.2828016 1.4277109 -1.233641 12
7.6971631 -2.0466182 -1.2999727 12
9.0645742 6.1973529 -1.1909364 13
8.3018293 1.4638364 -1.2358001 12
7.666337 -2.0069358 -1.2962955 12
9.0962086 6.2680268 -1.1844499 15
8.2917519 1.4934157 -1.2336044 12
7.6544361 -1.9724469 -1.2958262 12
9.1597776 6.3614702 -1.1859125 17
8.2965336 1.5271896 -1.2291641 10
7.6611757 -1.9442674 -1.2985853 12
9.168376 6.4197659 -1.1842819 18
8.3147097 1.5635668 -1.2342454 10
7.6633573 -1.9135311 -1.3005319 13
9.145793 6.4540381 -1.1725606 18
8.3389244 1.599787 -1.2326486 10
7.660625 -1.8816299 -1.3016609 13
9.4187622 6.6985149 -1.2005011 20
8.3669224 1.6384921 -1.2361889 10
7.6961212 -1.8590441 -1.3093089 13
9.4152088 6.7480865 -1.1929756 20
8.3956766 1.676098 -1.2352344 11
7.712482 -1.8331054 -1.3109405 12
9.3912535 6.7831569 -1.1828665 20
8.4815283 1.727128 -1.24729 12
7.7384543 -1.8079149 -1.3155905 12
5.2638216 -4.0215845 -1.0373331 27
9.4234676 6.8591218 -1.179806 14
8.4755669 1.7582911 -1.2442685 12
7.7833524 -1.7869153 -1.3249114 12
5.309289 -4.0255895 -1.0493364 27
9.4833326 6.9560122 -1.1801176 14
8.4500189 1.7868605 -1.2369007 12
7.7993269 -1.7590846 -1.3293389 12
5.3515992 -4.0254021 -1.0606256 27
9.5227814 7.0387735 -1.1757047 12
8.5015821 1.8318955 -1.2423711 12
7.7866864 -1.7262667 -1.3246666 12
5.757627 -4.2978592 -1.1418228 12
9.581543 7.1366606 -1.1756531 12
8.5101614 1.8664095 -1.2384102 12
7.7735276 -1.6920608 -1.3241669 12
5.9996219 -4.442728 -1.1917663 22
9.6820555 7.2615676 -1.1802713 12
8.5079746 1.9001985 -1.2375922 12
7.750577 -1.655921 -1.3220078 11
6.0269585 -4.4288611 -1.2006581 23
8.8898916 6.7184954 -1.0768828 10
8.5158558 1.9347551 -1.2366525 12
7.7329688 -1.6211364 -1.3165157 10
6.0111604 -4.3818069 -1.20081 23
8.5236759 1.9709796 -1.2326481 12
7.7241936 -1.5883592 -1.316803 10
6.0225005 -4.35636 -1.2052026 23
8.5507622 2.0102873 -1.2329323 12
7.7251287 -1.5590624 -1.3159794 10
6.0146112 -4.3155727 -1.2042772 23
8.5486317 2.0444562 -1.2274913 12
7.7211576 -1.5274301 -1.3157063 10
6.0145416 -4.2806344 -1.2049314 23
8.5570726 2.0764983 -1.2234188 10
7.6983652 -1.4922278 -1.3080226 7
5.953094 -4.2041154 -1.1934443 24
8.5920076 2.0849757 -1.2189775 12
7.7578173 -1.5037519 -1.3096203 10
5.9870992 -4.2265644 -1.1922344 23
8.5751457 2.0492151 -1.2155629 12
7.7332997 -1.529832 -1.3022227 10
5.9999905 -4.2702785 -1.190143 23
8.5640144 2.0102482 -1.2128314 12
7.7430396 -1.5612706 -1.2991533 10
6.0174007 -4.3159833 -1.1887704 23
8.5475378 1.9717832 -1.2094169 12
7.7521515 -1.5941085 -1.2974439 10
6.0225549 -4.3531981 -1.1849518 23
8.5357237 1.9345695 -1.2066853 12
7.7659554 -1.6280518 -1.296525 10
6.0347347 -4.3973784 -1.1826445 23
8.8234119 6.612772 -1.0364763 21
8.5467215 1.9072863 -1.2088966 12
7.7846613 -1.6632031 -1.2949994 11
6.0474396 -4.4406614 -1.1802635 23
8.8671236 6.5949163 -1.0446023 21
8.5449572 1.869352 -1.2075291 12
7.8081121 -1.6981615 -1.295633 12
6.0436969 -4.4721003 -1.177346 23
9.5312548 7.0347538 -1.1302271 12
8.5322886 1.8322796 -1.2078401 12
7.8212504 -1.7324973 -1.2960376 12
5.7146077 -4.262641 -1.1087701 28
9.9231586 7.2653141 -1.1798813 9
8.5242043 1.7978853 -1.2073042 12
7.8294272 -1.7658736 -1.2956318 12
5.3481755 -4.0199046 -1.0345464 27
9.8280973 7.1405306 -1.1761583 11
8.5306311 1.7650561 -1.2103453 12
7.8331847 -1.7969167 -1.2930175 12
9.7810411 7.0517139 -1.173799 11
8.5566635 1.7377625 -1.2115736 12
7.8078747 -1.8226962 -1.2842435 12
9.7792578 7.0012612 -1.1813885 11
8.5379791 1.7029574 -1.2111766 12
7.791646 -1.8504845 -1.2798665 12
9.5001173 6.7488866 -1.1508316 20
8.5592432 1.6730521 -1.2117213 12
7.8326945 -1.8920343 -1.2863508 12
9.5495386 6.7289729 -1.1639749 20
8.628706 1.6506966 -1.2237332 12
7.807395 -1.9162352 -1.2775859 12
9.6103334 6.719234 -1.1745765 19
8.6293383 1.6196138 -1.2245758 12
7.8914475 -1.9690219 -1.2896572 12
9.5730762 6.6410789 -1.1732022 16
8.626029 1.5831727 -1.2231944 12
7.9277868 -2.0104558 -1.2909951 12
9.5188198 6.5518923 -1.1717521 16
8.6215458 1.5512609 -1.2233419 12
7.9638481 -2.0506959 -1.295141 11
9.49263 6.4827194 -1.1757307 19
8.6223507 1.5172499 -1.2241784 12
7.9848046 -2.0888174 -1.2983675 11
9.4757605 6.417984 -1.1766359 19
8.647893 1.4859798 -1.226948 11
7.9966965 -2.1247675 -1.2956995 11
9.4901085 6.3770876 -1.1855913 19
8.6484404 1.4519081 -1.2277862 11
8.0131388 -2.1606104 -1.2966702 14
9.4630728 6.3086987 -1.1873432 13
8.6293087 1.41465 -1.2258461 13
8.0147505 -2.1940911 -1.2953134 14
9.3985119 6.2160225 -1.1823407 12
8.6386299 1.3867773 -1.2280674 13
8.0257425 -2.2302616 -1.2954861 13
9.3798666 6.1520505 -1.1869124 12
8.6341553 1.348985 -1.2297277 12
8.018383 -2.259907 -1.2896705 13
9.3476534 6.0820408 -1.1859125 12
8.6045675 1.3120733 -1.2263699 12
7.9625702 -2.2772155 -1.2791305 14
9.2689333 5.982583 -1.1809253 12
8.6044321 1.2782655 -1.2271905 12
7.9684329 -2.3120277 -1.2785239 14
9.2396889 5.9158463 -1.1841137 12
8.6282282 1.2510337 -1.231506 12
8.0413637 -2.3651769 -1.2856176 14
9.240654 5.86656 -1.189073 11
8.6378698 1.2170483 -1.2337278 12
8.0754929 -2.4089437 -1.2880275 14
5.8694248 -5.0645642 -1.0633274 38
9.2026815 5.7952375 -1.1872073 11
8.647172 1.1845151 -1.2359514 12
8.0997324 -2.4500813 -1.2903619 14
6.3478436 -5.5200415 -1.1463525 22
9.1579266 5.7247305 -1.1866086 11
8.6367455 1.152388 -1.2323276 12
8.1057367 -2.4843616 -1.2867047 14
6.3360715 -5.5507193 -1.1374123 22
9.1390457 5.6598253 -1.1867765 11
8.626358 1.1157757 -1.2317451 12
8.1012869 -2.517067 -1.2844939 14
6.3164272 -5.5745597 -1.130061 21
9.0850868 5.5848117 -1.1848946 11
8.6401901 1.0838504 -1.2346671 11
8.1108513 -2.5542293 -1.2845198 14
6.3190575 -5.6182151 -1.1251955 21
9.0369034 5.5096569 -1.1834496 11
8.6340628 1.0509528 -1.2347813 11
8.1256285 -2.591656 -1.2837883 14
6.419848 -5.7521148 -1.1409432 16
9.0191898 5.4514632 -1.1839674 11
8.6136656 1.0149215 -1.2297537 11
8.1258783 -2.6261535 -1.2793152 15
6.4624624 -5.8331394 -1.1399424 16
9.0000458 5.3949533 -1.1862693 11
8.6074486 0.98069489 -1.2298619 11
8.1589193 -2.6698985 -1.2829854 15
6.4894624 -5.9008169 -1.1407279 16
8.9934235 5.3462749 -1.1902038 11
8.6156931 0.94965923 -1.2320774 11
8.1727171 -2.7091987 -1.2821728 15
6.527029 -5.9788251 -1.1433214 15
8.9607086 5.2824745 -1.1924996 11
8.6140327 0.91905391 -1.2313738 11
8.1533003 -2.7375534 -1.2776977 28
6.5495386 -6.0437398 -1.1432309 15
9.5574055 13.271188 -1.1522207 16
8.9076586 5.205215 -1.18642 11
8.6175938 0.88294172 -1.2328857 11
8.1576824 -2.7723362 -1.2768947 31
6.5708899 -6.1103234 -1.1399035 16
9.5818329 13.202793 -1.1664935 15
8.8915768 5.1521931 -1.1890247 11
8.6254835 0.85181606 -1.235103 11
8.157383 -2.8072197 -1.2708328 31
6.6107197 -6.192697 -1.1427114 16
9.6586266 13.206509 -1.1929058 15
8.8707428 5.0967836 -1.1927811 11
8.6231174 0.81816161 -1.2389332 11
8.1470394 -2.8370991 -1.2708328 31
6.6319995 -6.2584276 -1.1422639 16
9.6884708 13.145924 -1.2078261 15
8.8204765 5.0229526 -1.1906033 12
8.6114073 0.78369945 -1.2368093 11
8.174036 -2.8817401 -1.2721243 26
6.5953526 -6.2697034 -1.1318374 16
8.8038721 4.9708538 -1.1894726 12
8.5993824 0.75386083 -1.2331789 11
8.2103424 -2.9300315 -1.2732995 16
6.5804892 -6.3016496 -1.121941 13
8.7762632 4.9169559 -1.1906538 12
8.6019983 0.72081804 -1.2346855 12
8.223444 -2.9687309 -1.2723353 16
6.59266 -6.3620119 -1.120057 13
8.7179041 4.8363919 -1.1870358 14
8.6045828 0.6892854 -1.2346855 12
8.2079611 -2.9988148 -1.2670399 16
6.5963688 -6.4169283 -1.1152747 12
8.7130938 4.7920437 -1.1910224 14
8.6071796 0.65322036 -1.236192 11
8.1509113 -3.0118794 -1.256832 18
6.7615552 -6.626029 -1.1372436 12
8.712616 4.7502723 -1.19384 13
8.6194973 0.62087756 -1.2376095 11
8.0244179 -3.0002067 -1.231463 21
6.7557344 -6.6690392 -1.130285 12
8.6758289 4.6910028 -1.1952808 13
8.6064796 0.59125835 -1.2369888 10
7.9580154 -3.0086706 -1.2214411 21
6.7634912 -6.7258215 -1.1289467 12
8.6721601 4.6441269 -1.1974241 13
8.6037264 0.55487013 -1.2377839 10
7.8963442 -3.0200589 -1.2077233 21
6.7713404 -6.7831688 -1.122527 12
8.6570807 4.5972385 -1.1983275 13
8.6154919 0.5254367 -1.239205 10
7.7606282 -3.0023606 -1.1842748 22
6.7752247 -6.8369951 -1.1171008 12
8.6204319 4.5373497 -1.1978478 13
8.6025352 0.49300626 -1.2370733 9
7.7132645 -3.0165851 -1.1743025 22
6.7913976 -6.9061522 -1.1155658 12
8.6190338 4.4963489 -1.1988004 13
8.5942659 0.45943147 -1.2371544 9
7.6666121 -3.0292368 -1.1629324 22
6.8143997 -6.9756632 -1.1127914 12
8.6134491 4.4514456 -1.2025098 13
8.5959663 0.42642856 -1.2371544 11
7.6142635 -3.0408645 -1.1552153 22
6.8103461 -7.0228257 -1.1059489 11
8.5715485 4.390059 -1.2012331 13
8.6021986 0.39513704 -1.2393687 11
7.5652947 -3.0581133 -1.1453621 22
6.7863441 -7.0545192 -1.0962604 11
8.5691357 4.3492513 -1.2054667 12
8.6085978 0.36231229 -1.240081 11
7.5136986 -3.0693433 -1.1320246 22
6.8331738 -7.1555066 -1.0993127 11
8.5628576 4.3047962 -1.2090462 12
8.6000347 0.32887679 -1.2386564 11
7.5260115 -3.1050718 -1.1340572 22
6.8623977 -7.2390451 -1.097702 11
8.5245419 4.2464652 -1.2081858 12
8.601182 0.29735389 -1.2386564 9
7.6021643 -3.1691468 -1.1414138 19
6.8875675 -7.3191395 -1.0971359 11
8.5135279 4.2002549 -1.209381 12
8.6219225 0.26191735 -1.2430112 9
7.621501 -3.2147465 -1.1404438 19
6.9260807 -7.4143295 -1.0950503 11
8.5017509 4.1557689 -1.2088932 12
8.6327591 0.22907223 -1.2444375 10
7.6421156 -3.2564859 -1.1408749 19
6.9537239 -7.4988303 -1.0929259 10
8.4722452 4.1011176 -1.2091287 12
8.6434364 0.19765635 -1.2458637 10
7.6574016 -3.2977982 -1.1405914 19
6.9680977 -7.5750947 -1.0890553 10
8.4730425 4.0632391 -1.2137781 12
8.6337414 0.16728373 -1.2474518 10
7.6695056 -3.3332043 -1.1410608 19
6.9972477 -7.6575942 -1.0884213 8
8.4783459 4.0276279 -1.2174121 11
8.6149626 0.13383068 -1.2415849 10
7.6708055 -3.368845 -1.1387024 19
7.0168018 -7.7357397 -1.0829673 8
8.4467249 3.9765277 -1.2174989 11
8.610013 0.10219049 -1.2438774 10
7.6772485 -3.4052947 -1.1355327 18
7.0209517 -7.8002934 -1.0789664 10
8.4292107 3.9306052 -1.2178429 11
8.6256218 0.069252416 -1.2430112 10
7.6782246 -3.4410708 -1.1331372 18
7.0243878 -7.8591104 -1.0706913 10
8.4137039 3.8805511 -1.2165331 11
8.6357279 0.034666222 -1.2444375 10
7.6829453 -3.480289 -1.1313906 19
7.0496292 -7.9513621 -1.0681537 10
8.3885384 3.8388016 -1.2161562 12
8.6157846 0.0045112143 -1.2430886 9
7.699738 -3.5170906 -1.1294695 19
7.1046362 -8.0699778 -1.0712733 10
8.3802538 3.7961621 -1.2161003 12
8.6011171 -0.025520105 -1.2394454 9
7.7100139 -3.5559969 -1.1268486 19
7.1474814 -8.1731329 -1.0684195 8
8.3705292 3.754843 -1.2208306 12
8.6207619 -0.057175897 -1.242298 9
7.7148104 -3.5941968 -1.1250238 19
7.176805 -8.2676201 -1.0676796 7
8.3391972 3.7023907 -1.2174201 12
8.6402721 -0.090484023 -1.2451506 9
7.7200594 -3.6311386 -1.1231778 19
7.1861644 -8.3399534 -1.0619754 7
8.3290529 3.6614013 -1.2220539 12
8.62953 -0.12351168 -1.246737 9
7.7206645 -3.6660409 -1.1206608 19
7.1659732 -8.3784256 -1.0518709 7
8.3150034 3.6171923 -1.2243909 12
8.6290197 -0.15513965 -1.246737 9
7.7251163 -3.7045717 -1.1172799 19
6.6062188 -7.7842751 -0.96329886 9
8.2866592 3.5687993 -1.2230936 13
8.6432018 -0.18859534 -1.2488816 9
7.7254009 -3.7395964 -1.1147258 19
6.4577484 -7.6633911 -0.93495727 23
8.2907934 3.5329027 -1.2248963 13
8.6523085 -0.22203529 -1.2503113 9
7.2145476 -8.6285019 -1.0374368 13
8.2848358 3.4945407 -1.2269108 13
8.63165 -0.25316572 -1.2474518 11
7.1931043 -8.6672134 -1.0270203 13
8.2518816 3.4433784 -1.224833 13
8.6356773 -0.2894927 -1.2466586 11
7.1556363 -8.686657 -1.0143272 16
8.2590752 3.4108927 -1.2303929 13
8.6493387 -0.3232035 -1.2488006 10
7.7106957 -3.8763897 -1.0994372 5
6.7618928 -8.2702484 -0.95152676 8
8.2749195 3.383673 -1.2357562 13
8.6428385 -0.35166505 -1.2511061 10
7.7854204 -3.9497688 -1.1075037 20
6.5214424 -8.0303593 -0.91233468 26
8.2373266 3.3297684 -1.2328776 13
8.6365643 -0.38765278 -1.2488816 10
7.8106203 -4.0003371 -1.1070409 20
6.4867239 -8.0534554 -0.89926219 14
8.217062 3.2849267 -1.2342452 13
8.6252718 -0.41731927 -1.2474518 10
7.8184562 -4.0405917 -1.1055619 20
8.2100277 3.2472651 -1.2361056 13
8.6286869 -0.45221031 -1.2466586 10
7.8431549 -4.0915909 -1.1049951 21
6.9706917 -8.7853699 -0.94962382 16
8.1792116 3.2021048 -1.2344652 14
8.636939 -0.48287985 -1.2480866 9
7.8900871 -4.1529341 -1.1090031 21
6.9390554 -8.811636 -0.93787915 16
8.1348867 3.1504154 -1.2306827 15
8.6300802 -0.51574439 -1.2473725 8
7.9105549 -4.2008052 -1.1076875 21
8.1093349 3.1047649 -1.2296419 15
8.6283503 -0.54738557 -1.2458637 8
7.9123731 -4.2407994 -1.1054419 22
8.1065702 3.0696869 -1.2290518 15
8.6360598 -0.58117646 -1.24729 8
7.9501801 -4.2986465 -1.1033109 22
8.1080189 3.0346901 -1.2352034 15
8.6286106 -0.61396557 -1.2480866 8
7.9731655 -4.3507218 -1.1055933 22
6.720675 -8.7966394 -0.87901688 16
8.1008387 2.9965909 -1.2338859 14
8.6361637 -0.64935642 -1.2480032 9
7.9750667 -4.3897691 -1.1032437 22
8.0084972 2.9291089 -1.2257717 14
8.6486444 -0.68066311 -1.2501426 9
8.0073347 -4.4458485 -1.1034669 21
7.9915576 2.8881717 -1.2229862 14
8.6412535 -0.71347719 -1.2479161 9
8.0168619 -4.4914966 -1.1006404 21
6.8685012 6.5981712 -1.1626873 14
8.0294456 2.8686352 -1.2317246 13
8.6385803 -0.74514419 -1.2479161 9
8.009491 -4.5260177 -1.0970126 21
6.8736496 6.5548444 -1.1712629 14
8.025794 2.8326278 -1.2340364 13
8.6555882 -0.78010488 -1.2492484 9
8.0323362 -4.5778484 -1.0958867 21
6.8715105 6.5048828 -1.1768886 14
8.0214958 2.7980907 -1.2363325 13
8.6328945 -0.81300849 -1.2448894 8
8.0325804 -4.6189384 -1.0917724 21
6.8800931 6.4653583 -1.1826594 14
8.0175343 2.7622235 -1.2386125 13
8.6297884 -0.84311688 -1.2464029 8
8.0463266 -4.6661682 -1.0893747 21
6.8823414 6.4178877 -1.1871432 14
7.9478469 2.7041199 -1.2307236 13
8.6609535 -0.87974757 -1.2513827 8
8.0984182 -4.7361264 -1.0921313 21
6.8882694 6.3808408 -1.1928345 14
7.9289598 2.665309 -1.2307522 13
8.6677313 -0.91254473 -1.2512842 8
8.1193275 -4.790288 -1.0907536 21
6.9068813 6.351203 -1.2036688 12
7.9655604 2.6467013 -1.2409794 13
8.6643801 -0.94584334 -1.2497631 8
8.1191187 -4.8303676 -1.0897547 21
6.9277225 6.319231 -1.2128527 12
7.9148159 2.5946076 -1.2329266 13
8.6507244 -0.98103744 -1.2468244 8
8.1446066 -4.8860378 -1.0888536 21
6.9527841 6.2977691 -1.2200437 12
7.8949785 2.5576191 -1.232879 13
8.6673031 -1.0120401 -1.2481366 7
8.1614599 -4.9369173 -1.085086 21
6.9859247 6.2813292 -1.2318168 11
7.885489 2.5211303 -1.2328302 13
8.672965 -1.0464724 -1.2510773 7
8.1556511 -4.9762764 -1.0817792 21
7.0006995 6.2483625 -1.238706 11
7.8186078 2.4681985 -1.2253399 14
8.659276 -1.0785698 -1.2481366 7
8.1423903 -5.0092316 -1.0739996 20
7.0465307 6.2474108 -1.251505 11
7.8132505 2.4335566 -1.2274078 14
8.6162043 -1.1052897 -1.2409569 7
8.1556168 -5.0547261 -1.0745579 20
7.1262178 6.2671494 -1.2729805 11
7.8081632 2.39763 -1.2294599 14
8.596962 -1.1363912 -1.2403492 7
8.0972471 -5.0656185 -1.0612149 20
7.1660414 6.257946 -1.2829465 11
7.7730818 2.3571978 -1.2284329 14
8.5878448 -1.1687545 -1.2381285 7
8.1691666 -5.1483817 -1.0677541 20
7.1278419 6.1786866 -1.2837808 9
7.7674556 2.3229616 -1.2290198 13
8.6425428 -1.208478 -1.2450906 7
8.1992331 -5.2134333 -1.0692613 19
7.0707331 6.0839367 -1.2777622 8
7.7705574 2.2928953 -1.2325127 13
8.6670218 -1.2458488 -1.2508563 7
8.1546755 -5.2291813 -1.059217 19
7.7691913 2.2600996 -1.2352453 13
8.6232147 -1.2733655 -1.2436781 7
8.1838398 -5.286262 -1.0583937 19
7.0234613 5.9521146 -1.2807608 10
7.7678957 2.2274082 -1.2365572 13
8.5938053 -1.3012251 -1.2416639 6
8.2174683 -5.3548565 -1.0568547 19
7.7563605 2.1933668 -1.2377526 13
8.5796041 -1.3327931 -1.2357037 7
8.2025576 -5.3880725 -1.0505391 21
6.9815655 5.8292179 -1.2814797 10
7.7452679 2.1581466 -1.2375237 12
8.6044197 -1.3689646 -1.2368896 7
8.22577 -5.4445181 -1.0489748 21
6.9610977 5.7669115 -1.2816954 10
7.7578444 2.1295846 -1.2410926 12
8.6184292 -1.4051445 -1.2412246 8
8.2353201 -5.4943528 -1.0457646 21
6.950736 5.7154961 -1.2839335 9
7.7602005 2.0996759 -1.2445397 12
8.6229496 -1.4398928 -1.2411063 8
8.2342777 -5.541553 -1.0431941 26
6.930274 5.6602545 -1.2862421 9
7.7379994 2.064708 -1.2455416 12
8.6271601 -1.4731177 -1.2440393 8
8.2576218 -5.5971379 -1.0414563 26
6.8893938 5.5829039 -1.2841462 9
7.7215581 2.0285938 -1.2444866 12
8.6360683 -1.5087883 -1.2461501 9
8.2632885 -5.6516385 -1.0398488 23
6.8318253 5.4948916 -1.2774657 9
7.718955 1.9976947 -1.2457296 12
8.6406002 -1.5437934 -1.2429619 9
8.274065 -5.6993742 -1.0329441 23
6.8433127 5.462945 -1.2836657 10
7.7020016 1.9617841 -1.2460322 11
8.6446247 -1.5772296 -1.244364 9
8.3065329 -5.7667427 -1.0360621 23
6.8362145 5.4144325 -1.2861998 10
7.6946812 1.9284878 -1.2464781 11
8.6387177 -1.6104507 -1.2428304 10
8.3431387 -5.8375897 -1.0343112 17
6.8160691 5.3579407 -1.2879839 10
7.6912613 1.8976973 -1.2504566 11
8.6322575 -1.6435684 -1.244364 10
8.3710623 -5.9029469 -1.0332239 17
6.7889099 5.2945433 -1.2866808 11
7.6788697 1.8633895 -1.2500966 10
8.636322 -1.6771666 -1.2426952 9
8.4067316 -5.9743528 -1.0330492 17
6.729001 5.208271 -1.2808113 11
7.637085 1.8222276 -1.2477651 10
8.6393175 -1.7121978 -1.245631 9
8.4264021 -6.0416141 -1.0349118 17
6.7314739 5.1708441 -1.2852424 11
7.6432881 1.7941244 -1.2505058 11
8.6576738 -1.7488384 -1.2460489 10
8.4515715 -6.1021953 -1.0294585 18
6.6951652 5.1021957 -1.2835784 11
7.5869389 1.7501881 -1.2443585 11
8.6702919 -1.7860643 -1.2488426 10
8.4877825 -6.180325 -1.0313321 18
6.6876869 5.0615282 -1.2849118 11
7.5642891 1.7143997 -1.2423316 11
8.6587372 -1.8183696 -1.2466 10
8.5079498 -6.238287 -1.0288548 17
6.6379442 4.9857211 -1.2807344 11
7.5648546 1.6854011 -1.2469519 11
8.6326494 -1.8459523 -1.2438097 10
8.4923716 -6.2771449 -1.0242962 17
6.6201234 4.9326906 -1.2839605 12
7.5708456 1.6562488 -1.2496572 11
8.6738739 -1.8896245 -1.2507856 10
8.5418682 -6.3622751 -1.0236906 15
6.5894108 4.8723488 -1.2833227 12
7.5521655 1.6218015 -1.2510703 11
8.6905079 -1.9282305 -1.2558272 11
8.5267382 -6.3997293 -1.0209259 15
6.5746431 4.8242574 -1.2828276 13
7.5574174 1.5939752 -1.2551144 11
8.6254272 -1.9469879 -1.2474457 11
8.4798298 -6.4132452 -1.0124993 15
6.5557299 4.7717628 -1.2871574 13
7.5722866 1.5667669 -1.2621173 11
8.6178875 -1.9800928 -1.2474457 11
6.4956694 4.6917214 -1.2834526 14
7.5135555 1.5272846 -1.2596763 10
8.6194391 -2.0153234 -1.2519327 10
6.4855723 4.686151 -1.2916476 15
7.4733696 1.5191159 -1.2625097 11
8.491991 -1.9855248 -1.2489507 12
6.4519353 4.6996593 -1.2856741 13
7.4762759 1.5496231 -1.2694736 11
8.4593487 -1.9452204 -1.2523706 11
8.333601 -6.355401 -1.0202314 14
6.4779735 4.756804 -1.2916148 12
7.4752135 1.5766371 -1.2729604 11
8.426528 -1.9051826 -1.2557062 11
8.3636303 -6.3299541 -1.0358467 14
6.5007253 4.8102832 -1.2953144 12
7.4733648 1.6089733 -1.2737823 11
8.3558588 -1.8555096 -1.2486809 11
8.2705364 -6.2119513 -1.0324287 17
6.5185509 4.8623185 -1.2967545 12
7.4777727 1.6372553 -1.2727538 10
8.3963318 -1.8306963 -1.2567333 10
8.2685909 -6.163218 -1.0384493 17
6.4895658 4.8778195 -1.2887251 12
7.4661832 1.6647855 -1.274604 10
8.3585911 -1.7904009 -1.2561897 11
8.214262 -6.0760155 -1.0396314 16
6.506752 4.9299498 -1.2915059 10
7.4647627 1.6945823 -1.2740899 11
8.345397 -1.7540877 -1.2577473 11
8.1870384 -6.0095782 -1.0495118 16
6.5484223 4.9994063 -1.2960366 10
7.4685464 1.7242497 -1.2730563 11
8.341651 -1.7214004 -1.2592614 10
8.148118 -5.9351773 -1.0488402 16
6.5492873 5.039989 -1.2955947 9
7.4330602 1.7461461 -1.2681409 11
8.3327942 -1.6862408 -1.2630032 10
8.1084709 -5.8609309 -1.0515563 16
6.5930562 5.1140985 -1.3021605 11
7.426301 1.7746741 -1.2681409 10
8.3188648 -1.6517066 -1.2645053 10
8.035924 -5.7637701 -1.0516183 21
6.6001387 5.1547389 -1.30094 10
7.4627848 1.8137121 -1.2741735 10
8.3101501 -1.6168348 -1.2652484 9
8.0239916 -5.7107887 -1.0542644 22
6.6002455 5.1957464 -1.3003795 10
7.408308 1.8306267 -1.2633263 11
8.3112221 -1.5839469 -1.2659861 9
8.0114775 -5.6577601 -1.0602784 23
6.6246328 5.2543855 -1.3014154 10
7.4012241 1.859059 -1.2633263 11
8.3112411 -1.5524038 -1.2711493 9
8.0029058 -5.6078587 -1.0650449 25
6.6486869 5.3132787 -1.3023556 10
7.4091287 1.8899404 -1.2631072 11
8.3071947 -1.5186613 -1.2711364 8
7.9816785 -5.5494776 -1.0698082 25
6.6635885 5.3672433 -1.3031892 10
7.4354587 1.9270946 -1.267471 11
8.3071823 -1.487215 -1.2748113 8
7.9805865 -5.5054379 -1.0772271 22
6.7023325 5.4390726 -1.30695 10
7.4423165 1.9593985 -1.2699131 12
8.2929134 -1.45182 -1.2747627 8
7.9753294 -5.4587774 -1.0823485 20
6.7048898 5.4839811 -1.3069061 10
7.4540162 1.9931149 -1.2718226 12
8.2928963 -1.4190204 -1.2784197 8
7.9532399 -5.400959 -1.086852 19
6.7275982 5.5438323 -1.3075045 9
7.4518504 2.0218298 -1.2699406 12
8.2880707 -1.3869473 -1.2783842 8
7.9320827 -5.3422036 -1.0879118 19
6.7488098 5.60496 -1.3095382 9
7.4585161 2.0544174 -1.2710247 12
8.244112 -1.3470703 -1.2737801 8
7.8928342 -5.2738233 -1.0899409 18
6.7348547 5.6312122 -1.302616 9
7.4747591 2.089803 -1.2723686 12
8.2580957 -1.3182982 -1.2796665 8
7.8988962 -5.2360992 -1.0965004 18
6.7859182 5.7183232 -1.3088161 8
7.4906278 2.1252832 -1.2750541 12
8.2482252 -1.2842642 -1.2788545 8
7.8714266 -5.1764627 -1.100045 18
6.8203301 5.7943006 -1.31195 8
7.4832149 2.1528466 -1.272336 12
8.1846809 -1.2392778 -1.2711438 7
7.8439517 -5.11731 -1.1002049 19
6.7305036 5.7565241 -1.2904422 8
7.4660568 2.1789851 -1.2666514 12
8.1983042 -1.2135444 -1.2741082 7
7.8045287 -5.0489759 -1.0985277 20
6.7764969 5.841064 -1.2971733 8
7.5004368 2.2203066 -1.2725196 12
8.226697 -1.1854851 -1.2822591 7
7.7676902 -4.9848537 -1.1005648 20
6.8267202 5.9281049 -1.3044933 8
7.5107632 2.254766 -1.275731 14
8.2403078 -1.1551666 -1.2881407 7
7.7514296 -4.9344025 -1.1054517 20
6.8569045 6.0006528 -1.3065383 8
7.5078087 2.2839096 -1.2724251 14
8.2255163 -1.1194438 -1.283632 7
7.6935863 -4.8580465 -1.097878 20
6.9195337 6.0960975 -1.3141044 8
7.5237999 2.3174982 -1.2736783 14
8.0871019 -1.0718676 -1.262898 7
7.7002645 -4.8266215 -1.1061975 20
6.9808221 6.2000427 -1.3238101 11
7.5197701 2.3479078 -1.273102 14
8.0905008 -1.040723 -1.2671694 8
7.6266751 -4.7361131 -1.1023082 20
6.9777017 6.2431693 -1.3158816 11
7.4689765 2.3635612 -1.2618212 14
8.157774 -1.0189964 -1.2785819 8
7.580111 -4.668788 -1.0978296 20
6.9453411 6.2580042 -1.3088992 11
7.474576 2.3955073 -1.2628366 14
8.1413422 -0.98521072 -1.2798026 8
7.520134 -4.5939131 -1.0945051 20
6.9158664 6.2775259 -1.2993624 12
7.5408683 2.4487216 -1.2727768 14
8.1158466 -0.95052087 -1.2737504 9
7.4625492 -4.5248227 -1.0901214 20
6.8865023 6.2970624 -1.2882134 12
7.5554919 2.4855807 -1.272575 14
8.0405149 -0.91183656 -1.2628412 9
7.4664588 -4.4880748 -1.0943443 20
6.8558106 6.3175035 -1.2787106 13
7.5371733 2.5102062 -1.2696087 14
8.0334778 -0.87980884 -1.2655308 8
7.5473499 -4.4955535 -1.1128923 21
6.8550477 6.3634171 -1.2762576 14
7.5042968 2.5313084 -1.264281 14
8.0169277 -0.84685731 -1.2638438 8
7.514245 -4.442142 -1.1151216 21
6.8542023 6.4095631 -1.2721248 14
7.4671102 2.5507405 -1.2554203 14
7.9808059 -0.81206805 -1.2576485 9
7.5099468 -4.3990145 -1.11803 21
6.8521452 6.4571342 -1.266296 14
7.4676661 2.5815332 -1.2528547 13
7.9444542 -0.77616084 -1.2528464 9
7.5303936 -4.3722429 -1.1247464 21
6.8472033 6.5000248 -1.2613899 14
7.4541545 2.6060266 -1.2506936 13
7.936626 -0.74743694 -1.2554699 10
7.4970798 -4.3197222 -1.1222314 21
6.8454609 6.5462375 -1.2587504 14
7.4624095 2.6440437 -1.2496769 13
7.9539762 -0.71827 -1.2591974 10
7.4573622 -4.2570548 -1.1228637 21
6.8295074 6.5790725 -1.250138 14
7.4942489 2.6877575 -1.2553036 14
7.9614758 -0.68953854 -1.2599761 10
7.3909917 -4.1816216 -1.1164747 20
6.8215151 6.6174374 -1.2444589 14
7.5137753 2.7229156 -1.2557918 14
7.9540014 -0.658131 -1.2598116 9
7.3652344 -4.1348672 -1.1165059 21
6.806459 6.6560745 -1.2364377 14
7.5353804 2.7665086 -1.2570219 14
7.9466219 -0.62401718 -1.2596437 9
7.3377748 -4.0807986 -1.1158155 21
7.0678296 6.9576712 -1.2793015 8
7.5860891 2.8152144 -1.2656658 14
7.9531331 -0.5979991 -1.2632083 9
7.3120642 -4.0331464 -1.1171751 19
7.5300856 2.8258741 -1.2537278 14
7.9654422 -0.56817532 -1.2633789 10
7.2913284 -3.9869251 -1.1176728 19
6.7293344 -8.823925 -0.97672546 16
7.519793 2.8549995 -1.2495164 14
7.9574909 -0.53690642 -1.2632083 11
7.272418 -3.937104 -1.1181147 20
6.7062869 -8.7208786 -0.98183745 16
6.5448074 6.5883589 -1.1698774 19
7.5368567 2.8946376 -1.2513034 14
7.934412 -0.50475228 -1.2620727 11
7.2540178 -3.8960929 -1.1206112 20
7.5544453 2.9332101 -1.2516551 13
7.9261303 -0.4750638 -1.2618908 11
7.2456932 -3.8574712 -1.1229708 20
7.5529356 2.9660475 -1.248933 13
7.9476171 -0.44573224 -1.2650298 11
7.2292614 -3.81317 -1.1225065 21
7.5653844 3.0029871 -1.2498949 14
7.9492698 -0.41521236 -1.2650298 11
7.2086921 -3.7654097 -1.1227422 21
7.5773396 3.0414631 -1.2494144 14
7.9455848 -0.38582382 -1.2656333 11
7.189311 -3.724993 -1.1264356 20
7.5806193 3.0735474 -1.2502555 14
7.9416347 -0.35507196 -1.2676228 11
7.1721964 -3.6812625 -1.1258341 20
6.4603271 -8.0378981 -0.99296194 14
7.6010399 3.1174138 -1.2498084 13
7.9377847 -0.32436508 -1.2682222 11
6.5714827 -3.3425608 -1.0348569 20
6.4823728 -7.999352 -1.0041041 14
7.6170168 3.1581869 -1.2500031 13
7.9241691 -0.29333591 -1.2658575 11
6.5407171 -3.2924991 -1.0317411 22
6.746882 -8.2636566 -1.0535365 8
7.6207867 3.1894069 -1.2479259 14
7.8955832 -0.26330301 -1.2611283 11
6.5375037 -3.2637541 -1.0360253 22
6.7764201 -8.2380161 -1.0647076 8
7.6214199 3.2272542 -1.2472773 14
7.8916001 -0.23283868 -1.2603401 11
6.5582123 -3.2426946 -1.042537 22
6.3741393 -7.6913352 -1.0076315 13
7.6192317 3.2593122 -1.2444286 15
7.9267664 -0.20341644 -1.2672415 11
7.0540562 -3.4557464 -1.1235354 18
6.4034562 -7.6720428 -1.0185988 13
7.6206746 3.2946022 -1.2437581 15
7.9916282 -0.17577341 -1.2774994 11
7.0700645 -3.431514 -1.1324738 18
6.4754233 -7.700717 -1.0397464 9
7.6373153 3.3334866 -1.2409313 12
7.9675612 -0.14463846 -1.273554 11
7.0830107 -3.4042563 -1.1338453 18
6.6348114 -7.83181 -1.0697768 9
7.6571198 3.375596 -1.2431654 12
7.8693213 -0.11263105 -1.2577727 11
7.081141 -3.3714647 -1.1385478 18
6.6627412 -7.8065834 -1.0805249 9
7.6672864 3.4152994 -1.2424444 12
7.864759 -0.08236257 -1.2569835 11
7.0798879 -3.3375812 -1.1418575 19
6.6611457 -7.7470307 -1.0900801 9
7.6821785 3.4557314 -1.2438968 12
7.8798199 -0.053637058 -1.2593508 11
7.0736003 -3.302984 -1.1430582 19
6.6529403 -7.6803641 -1.0948864 9
7.7009697 3.4997993 -1.244581 11
7.8844643 -0.023393746 -1.2628921 11
7.0583811 -3.2629251 -1.1454982 19
6.7030387 -7.6811304 -1.1110921 6
7.7068629 3.5366158 -1.2415726 11
7.8600326 0.0041155037 -1.2575665 11
7.0429454 -3.2245121 -1.1438301 19
6.5377011 -7.4417086 -1.0865872 10
7.7219968 3.5762441 -1.2414632 11
7.8453655 0.03423208 -1.2538273 11
7.0354128 -3.1914046 -1.1463021 19
6.5607538 -7.4129753 -1.0981371 10
7.7454796 3.6216559 -1.2412685 11
7.8698735 0.063184753 -1.2577727 11
7.0373077 -3.1612151 -1.1502205 20
6.5738826 -7.3731804 -1.1062771 10
7.7587552 3.6642339 -1.2425835 11
7.8695726 0.093402356 -1.2577727 11
7.0352874 -3.1278992 -1.15204 21
6.5502863 -7.2927275 -1.1081958 10
7.7728572 3.7057974 -1.2408718 11
7.8740931 0.12369615 -1.2585617 11
7.0371008 -3.0978644 -1.1545861 22
6.5087037 -7.1881781 -1.1065558 10
7.7769923 3.7444854 -1.239205 11
7.8785238 0.15265095 -1.2593508 11
7.0529213 -3.0725539 -1.159357 23
6.5048203 -7.1361833 -1.1138185 9
7.7728944 3.7776682 -1.2345929 13
7.8482633 0.1822135 -1.2546164 11
7.1085978 -3.0658591 -1.1735641 23
6.5067577 -7.085968 -1.1182035 9
7.789825 3.8229415 -1.2365136 13
7.8326988 0.21194661 -1.2522492 11
7.2288656 -3.0848637 -1.1956651 23
6.4813042 -7.0065269 -1.1195399 11
7.8075857 3.8672304 -1.2353691 11
7.8560638 0.24276933 -1.2589382 11
7.2719541 -3.070298 -1.2050623 23
6.4981465 -6.9684091 -1.1310972 11
7.7990451 3.8969617 -1.231506 11
7.8557792 0.27158436 -1.2548226 11
7.3008161 -3.0510035 -1.2122239 23
6.4574509 -6.8764868 -1.1248376 11
7.7975569 3.9354136 -1.2259823 13
7.8398767 0.30117768 -1.252458 11
7.3803959 -3.0510254 -1.2277631 22
6.4349532 -6.8000154 -1.1296223 12
7.8096213 3.9792008 -1.2240334 13
7.8583946 0.33211228 -1.2556108 10
7.4458156 -3.0461636 -1.2410926 22
6.4259429 -6.7384782 -1.1333843 12
7.8482146 4.0351658 -1.2292517 13
7.8715119 0.36570367 -1.2593508 10
7.5068316 -3.0375299 -1.2565457 22
6.4037762 -6.6684704 -1.1368265 12
7.8918066 4.0924716 -1.2335647 12
7.860393 0.39131352 -1.2577727 11
7.5723414 -3.0317869 -1.2700167 22
6.3699799 -6.5824986 -1.134447 12
7.9113684 4.1429987 -1.2312696 11
7.8640537 0.42452535 -1.2558126 11
7.643434 -3.0262496 -1.2814516 21
6.3621993 -6.5264206 -1.1368703 12
7.9237089 4.1847696 -1.2306753 11
7.8824611 0.45311952 -1.2575841 11
7.7003722 -3.0146425 -1.2934825 20
6.350481 -6.4668097 -1.1401736 12
7.9438615 4.2327223 -1.2314049 11
7.8856759 0.48230857 -1.2583706 11
7.7059193 -2.9842882 -1.2984793 20
6.3384132 -6.4073749 -1.1433717 14
7.972877 4.2857747 -1.2302835 11
7.8790569 0.5122776 -1.256206 11
7.6386929 -2.9245737 -1.2867125 23
6.3645067 -6.3867617 -1.1534436 14
7.9743476 4.3261142 -1.2282268 12
7.8868847 0.5432058 -1.2577772 11
7.5790296 -2.8699248 -1.2821302 32
6.3272886 -6.3030396 -1.152011 15
7.9852695 4.3699961 -1.225897 12
7.8898845 0.57385933 -1.2571822 11
7.5754895 -2.8353736 -1.2840217 34
6.3142314 -6.2440915 -1.1549144 15
8.0125599 4.4249954 -1.2261804 12
7.8828044 0.60239702 -1.2563975 12
7.5766373 -2.8026831 -1.2852738 34
6.2525153 -6.1357546 -1.1470834 14
8.0186825 4.4668078 -1.2230922 12
7.8855743 0.63307303 -1.2558016 12
7.576952 -2.7712712 -1.2879273 28
6.2350397 -6.0739064 -1.1490585 14
8.0332479 4.5135808 -1.2212825 12
7.8929262 0.6641748 -1.2573693 11
7.5869021 -2.7419279 -1.2921515 19
6.2102184 -6.0055223 -1.1480912 14
8.0656281 4.5688896 -1.2220378 12
7.8861737 0.69272476 -1.2524405 11
7.591352 -2.7136137 -1.2941748 15
6.1812663 -5.9338365 -1.147843 12
8.0752106 4.613493 -1.2210894 12
7.8832383 0.72298038 -1.2538221 11
7.5676012 -2.6738837 -1.2956318 15
6.155468 -5.865871 -1.1481174 12
8.0831318 4.6611567 -1.2184808 12
7.8806219 0.7532652 -1.2524405 11
7.5552168 -2.6339624 -1.2930441 15
6.1220627 -5.7913713 -1.1469072 15
9.5265446 13.160404 -1.3185849 15
8.1146994 4.7171812 -1.2190503 12
7.882586 0.78400779 -1.2532218 12
7.5686307 -2.6075661 -1.2994307 15
6.1001821 -5.7264485 -1.1461179 17
8.1280336 4.7648754 -1.2169808 13
7.8946152 0.81443655 -1.2541806 12
7.5639267 -2.5734975 -1.3012111 15
6.091259 -5.6762171 -1.1494089 21
9.4222641 13.214405 -1.2801465 14
8.1609697 4.8283067 -1.2163925 13
7.8920817 0.84481335 -1.2500249 12
7.5363274 -2.531862 -1.2947812 15
6.0858355 -5.6296291 -1.1518579 22
8.1831322 4.8800621 -1.215467 13
7.9086323 0.87731278 -1.2517475 12
7.5259571 -2.499177 -1.2943347 14
6.0765061 -5.5798097 -1.1535528 22
8.1771326 4.9210896 -1.2090372 13
7.9301176 0.90913129 -1.2542394 12
7.5259061 -2.465662 -1.2968706 14
6.0623212 -5.5201573 -1.1552153 21
9.2360287 13.259253 -1.2206708 17
8.2120304 4.9792609 -1.2132256 12
7.9167585 0.93841118 -1.2526872 12
7.5250659 -2.4334311 -1.3007761 14
6.0429792 -5.4660006 -1.1567729 21
9.1383066 13.207239 -1.1963203 17
8.2528229 5.0474348 -1.2152456 11
7.9280224 0.97062969 -1.2536216 12
7.5095844 -2.3995025 -1.2994709 14
6.0474877 -5.4299116 -1.1610548 19
9.0680809 13.208951 -1.1737753 14
8.2773991 5.1042461 -1.2129918 11
7.9584975 1.0039809 -1.2604486 12
7.5129743 -2.3702734 -1.3027828 14
6.0739794 -5.41362 -1.1695697 17
8.3225613 5.174294 -1.2154335 11
7.9601364 1.035254 -1.2570219 12
7.5168757 -2.3398068 -1.3047153 13
6.0085464 -5.314043 -1.1616076 17
8.3581829 5.2410455 -1.214825 10
7.9318385 1.0625606 -1.2517573 12
7.4788013 -2.2936375 -1.3006364 13
5.9918718 -5.2565804 -1.1613979 17
8.3606081 5.285357 -1.2109754 10
7.9036379 1.0882856 -1.2465014 11
7.4576111 -2.2601097 -1.298436 13
5.9562888 -5.1905122 -1.1582 18
8.4090395 5.3592124 -1.2119958 10
7.9147215 1.1207948 -1.2446318 11
7.4563494 -2.2285035 -1.299509 13
8.4695759 5.4415469 -1.2146735 10
7.9254565 1.1533738 -1.2441438 12
7.4604526 -2.1957304 -1.3014003 13
8.4711189 5.4865065 -1.2106227 11
7.9116173 1.1809875 -1.2412126 12
7.4444942 -2.1600077 -1.301333 14
8.5025139 5.5490646 -1.2106805 11
7.936542 1.2158792 -1.2444112 12
7.446876 -2.1339507 -1.3005053 14
8.5474052 5.6274176 -1.2112228 10
7.9564357 1.250213 -1.2468344 12
7.4643641 -2.1051683 -1.3075755 14
8.5668221 5.6810126 -1.2075421 10
7.9713054 1.283932 -1.2484851 13
7.4569783 -2.0750127 -1.3077837 14
8.6044445 5.7514782 -1.2084839 10
7.9674039 1.3132811 -1.242848 13
7.4692044 -2.0475471 -1.3113202 13
8.6531849 5.8322525 -1.209236 10
7.9532385 1.3394789 -1.2399192 13
7.5099726 -2.0291586 -1.3171631 13
8.663435 5.8898749 -1.2046989 10
7.9480095 1.3714311 -1.2385114 12
7.4941406 -1.9912357 -1.3156964 13
8.7185011 5.9696817 -1.2057604 10
7.9769673 1.40799 -1.2424099 12
7.4338441 -1.9474593 -1.306669 13
8.7790327 6.0585108 -1.2096516 10
8.0059757 1.4448304 -1.2448765 12
7.4694624 -1.9261718 -1.3143905 13
8.7980757 6.1193771 -1.2096746 13
7.9911189 1.4724122 -1.2419457 11
7.4230361 -1.8852111 -1.3104992 13
8.8500328 6.2037678 -1.2065657 13
7.9813991 1.5023307 -1.2355207 11
7.506722 -1.8758113 -1.3239921 13
8.956872 6.330091 -1.2147467 19
7.9854913 1.5348727 -1.2356054 12
7.4703498 -1.8362763 -1.3190876 13
5.1676192 -4.0446539 -1.0452341 28
8.9344702 6.3634896 -1.2051749 19
8.014616 1.5709527 -1.235162 12
7.5250211 -1.819104 -1.3288891 13
5.189774 -4.0314074 -1.050248 27
8.9402046 6.4170938 -1.1993943 19
8.0475206 1.6095139 -1.239711 11
7.5168042 -1.7879828 -1.3290486 12
5.2191329 -4.0236282 -1.0614563 27
8.9577475 6.4795632 -1.1951643 17
8.0707712 1.6464181 -1.2413166 11
7.5380087 -1.7624729 -1.3315915 12
5.2576261 -4.0212126 -1.0696929 27
8.966917 6.5363913 -1.1897805 17
8.1278248 1.6891102 -1.2495538 11
7.4770365 -1.7179645 -1.3224031 12
5.3037348 -4.0242949 -1.0818846 26
9.2364197 6.7848244 -1.2166926 17
8.1463194 1.7256103 -1.247462 12
7.5167694 -1.6967344 -1.3310382 12
5.3454385 -4.0251522 -1.0921704 26
9.1803656 6.7955933 -1.2025028 17
8.2126589 1.771139 -1.2571073 12
7.4941421 -1.6614112 -1.3272717 12
5.6834831 -4.247149 -1.1644081 28
9.1307077 6.8058195 -1.1889007 17
8.2169437 1.8021023 -1.2527145 12
7.5141687 -1.6369799 -1.332512 12
5.782155 -4.2863836 -1.1876943 26
9.182085 6.8966103 -1.1887442 12
8.2100697 1.835168 -1.249778 12
7.5155816 -1.6070855 -1.3316584 12
5.8329182 -4.2909765 -1.2000763 26
9.2884483 7.0298963 -1.1955684 9
8.2128191 1.8689218 -1.2497774 11
7.502183 -1.5741215 -1.3295817 12
5.8368902 -4.2594552 -1.2014076 26
9.3072844 7.0979552 -1.1868844 9
8.2309484 1.9063177 -1.2445999 11
7.4695697 -1.5373586 -1.3227458 12
5.8247271 -4.2163987 -1.1994321 26
9.4005327 7.2237148 -1.1896025 9
8.2387743 1.939974 -1.2438314 11
7.4607043 -1.505697 -1.3215108 11
5.8032441 -4.1685185 -1.1982641 27
9.4418526 7.3106632 -1.1855847 7
8.2272968 1.9706435 -1.2371987 12
7.4422674 -1.4722588 -1.317234 11
5.790586 -4.1258121 -1.1961983 27
8.1966085 1.995087 -1.2291641 10
7.4524503 -1.44591 -1.3180894 11
5.7817154 -4.086112 -1.1949283 27
8.2844019 2.0164561 -1.2332127 12
7.4542494 -1.4462591 -1.3074886 12
5.798502 -4.0979757 -1.1933 26
8.516161 6.5915394 -1.0483289 23
8.258812 1.9766682 -1.2252383 11
7.4689059 -1.4775286 -1.3068961 11
5.7807775 -4.1173024 -1.1825629 27
8.5753441 6.5872297 -1.0583509 23
8.2573833 1.939793 -1.2238103 11
7.4785628 -1.5093012 -1.3041078 11
5.818018 -4.1775913 -1.1857464 27
9.2571144 7.0545845 -1.1452947 9
8.2545862 1.907239 -1.223861 11
7.507175 -1.5450984 -1.3059919 12
5.8396435 -4.2256436 -1.1855484 26
9.567667 7.2359695 -1.1931123 6
8.2473717 1.872243 -1.2217164 11
7.5261993 -1.5791607 -1.3048228 12
5.8606658 -4.2736707 -1.1877881 26
9.4384375 7.0840039 -1.1799918 13
8.2492533 1.8393919 -1.2239518 12
7.5302262 -1.6088426 -1.3051518 12
5.8650932 -4.311492 -1.1842059 26
9.4478817 7.0371056 -1.1841706 13
8.2513142 1.808131 -1.221761 12
7.5393333 -1.6410838 -1.3022721 12
5.850245 -4.3336954 -1.1765825 26
9.426321 6.9649315 -1.1843065 13
8.2436819 1.7733129 -1.2196137 12
7.5577111 -1.6755041 -1.3023796 12
5.6770597 -4.2377186 -1.137257 26
9.3025255 6.8208938 -1.1757742 17
8.2209635 1.7354261 -1.2182523 12
7.546854 -1.7035253 -1.2988496 12
5.3695836 -4.0403972 -1.0727472 26
9.3065205 6.7715144 -1.1832836 18
8.1979914 1.6992146 -1.2154088 11
7.5554204 -1.7345862 -1.2986271 12
5.3084097 -4.0249233 -1.0563132 26
9.3428707 6.7457299 -1.1908514 18
8.2525263 1.6774956 -1.2255318 11
7.5685749 -1.7682264 -1.2978621 12
5.2583294 -4.0188422 -1.0434906 27
9.3037167 6.6706362 -1.1931328 18
8.3020773 1.6559052 -1.2334896 11
7.56217 -1.7973793 -1.2951488 12
9.231492 6.5653305 -1.186625 15
8.3083744 1.6240155 -1.2334896 10
7.5516143 -1.8241376 -1.2889038 13
9.1859159 6.4823527 -1.1836565 15
8.2943459 1.5912347 -1.2320801 10
7.5643711 -1.8579876 -1.2880991 13
9.1232347 6.3881578 -1.1823825 20
8.2953796 1.5569342 -1.2343047 11
7.5480442 -1.8847375 -1.2837518 13
9.1743164 6.3739414 -1.1958265 20
8.2966442 1.5242159 -1.2321088 11
7.5507498 -1.9162433 -1.2826607 13
9.1695518 6.3185668 -1.1979321 14
8.2874041 1.4896462 -1.2328802 11
7.611433 -1.9613656 -1.2885462 13
9.0974026 6.2197971 -1.1952494 14
8.2872143 1.4612595 -1.2336246 11
7.6229386 -1.995575 -1.2917817 13
9.0536308 6.1412973 -1.1942612 13
8.2930508 1.4264969 -1.2350934 11
7.5731692 -2.0136492 -1.2790314 13
9.030201 6.077198 -1.193992 12
8.3082228 1.3962831 -1.2365454 12
7.6047177 -2.0519104 -1.2799762 13
9.0074768 6.0117836 -1.1936651 12
8.322835 1.3673915 -1.2394696 12
7.6400542 -2.0929489 -1.2844291 13
9.0018101 5.9649487 -1.1979176 12
8.3126917 1.3359419 -1.2387583 11
7.703723 -2.1422246 -1.2936419 13
8.9792967 5.8982949 -1.1993541 12
8.3077717 1.3024479 -1.2387704 11
7.7390656 -2.1841004 -1.2952152 14
8.9418707 5.8269081 -1.1990391 13
8.3122759 1.2719569 -1.2402381 12
7.7551737 -2.2193666 -1.2963752 14
8.9340858 5.7730856 -1.2044146 13
8.3019934 1.2377787 -1.2409794 12
7.7754755 -2.2575128 -1.2983092 14
8.910656 5.7161484 -1.2061802 13
8.2966805 1.2044399 -1.24098 12
7.7908649 -2.2944539 -1.2994325 13
8.8533506 5.6293502 -1.2009193 13
8.2963371 1.1704042 -1.2417104 12
7.8064933 -2.3301842 -1.3005385 13
8.8124523 5.5623937 -1.2002343 13
8.3050566 1.1420815 -1.2439065 12
7.8219867 -2.3675568 -1.2987744 13
6.2521343 -5.4406471 -1.1692184 20
8.7842503 5.4932733 -1.2024109 13
8.3093596 1.1087053 -1.2453696 12
7.8274345 -2.4020529 -1.2982707 14
6.2468534 -5.4783435 -1.1647619 15
9.5388689 13.983457 -1.1331999 7
8.7447033 5.4240589 -1.1997292 13
8.299057 1.0749135 -1.2417049 12
7.8290901 -2.4339936 -1.2926825 14
6.2168107 -5.4924369 -1.151098 16
9.4625092 13.768036 -1.138916 8
8.7365541 5.3789682 -1.203418 12
8.2927284 1.0446744 -1.2416959 11
7.8342485 -2.4686258 -1.2921515 14
6.2527342 -5.5651126 -1.1555629 16
9.4014511 13.572357 -1.1429434 9
8.7140408 5.3190732 -1.2047207 12
8.3015499 1.0119492 -1.2438904 11
7.8486691 -2.5063391 -1.2931607 14
6.2737641 -5.6251745 -1.154261 15
9.3247032 13.356709 -1.1476526 13
8.6607285 5.2430577 -1.2000607 12
8.31007 0.98062027 -1.2460865 11
7.8682747 -2.5444169 -1.2934825 14
6.2897725 -5.6832457 -1.1521702 15
8.6621408 5.2006245 -1.2047603 12
8.2940035 0.94938165 -1.2416836 11
7.8780823 -2.5810432 -1.290786 15
6.3027687 -5.7370892 -1.1493062 12
9.3435335 13.181704 -1.175179 14
8.6384802 5.141397 -1.2076132 12
8.2676077 0.91275239 -1.2416253 11
7.877492 -2.6143861 -1.2923245 15
6.3299198 -5.804369 -1.1504985 6
8.5710411 5.0588088 -1.2026347 12
8.2808867 0.88204795 -1.2431017 10
7.8872318 -2.64975 -1.2910451 13
6.3640962 -5.8787913 -1.1513846 6
9.495018 13.199126 -1.2168527 15
8.5547104 5.0069838 -1.2030264 12
8.2938347 0.85123283 -1.2460332 10
7.9059196 -2.6898549 -1.2898153 13
6.3593168 -5.921864 -1.1470953 6
9.5514832 13.175482 -1.2321737 15
8.5388002 4.953752 -1.2050991 12
8.2872734 0.81987637 -1.2431017 11
7.9246802 -2.7286861 -1.2900062 22
6.3143096 -5.9212408 -1.1319399 6
9.6001062 13.150563 -1.2528217 15
8.5071383 4.8977504 -1.2052877 14
8.2845135 0.79041189 -1.2467213 11
7.9155312 -2.7564795 -1.2870805 22
6.4050169 -6.0505738 -1.1443489 6
9.657815 13.118706 -1.2734922 16
8.5087576 4.8533092 -1.2096893 14
8.2828274 0.75525397 -1.2459804 11
7.8905683 -2.7849011 -1.2804229 32
6.4481802 -6.1362281 -1.148173 6
8.4749422 4.790987 -1.2074331 13
8.3004074 0.72765136 -1.2467486 11
7.8904576 -2.8174267 -1.2760864 32
6.4803586 -6.2122698 -1.1468011 6
8.4253197 4.7261357 -1.2032603 13
8.3077288 0.69761944 -1.2489434 11
7.9081044 -2.8580115 -1.276201 25
6.5152087 -6.2916636 -1.1506158 8
8.4184675 4.6760411 -1.2045947 13
8.2957916 0.6616348 -1.2467213 11
7.9212089 -2.8956158 -1.2770084 23
6.4909024 -6.3187428 -1.1395495 8
8.4067516 4.633121 -1.2109237 13
8.283041 0.63152868 -1.2459487 11
7.9487796 -2.9371891 -1.2785598 19
6.4517989 -6.3246889 -1.1285452 8
8.3797731 4.5782919 -1.207999 14
8.2754364 0.60044992 -1.2444654 11
7.9656477 -2.9782336 -1.2800671 14
6.5034161 -6.4222007 -1.133584 5
8.3660145 4.52915 -1.2102481 14
8.2774639 0.56865525 -1.2459135 11
7.9403811 -3.0051723 -1.2733893 14
6.4608359 -6.4315839 -1.120961 5
8.3529711 4.4788237 -1.2107939 14
8.2748404 0.53365964 -1.2451711 11
7.8466859 -3.0042067 -1.2527081 20
8.32306 4.4273129 -1.2126853 14
8.2812815 0.50650489 -1.2473617 11
7.7486 -2.9992621 -1.2343485 20
8.317688 4.383564 -1.2127777 14
8.2932043 0.47237438 -1.2488483 11
7.7007818 -3.0148029 -1.2241408 20
8.3065758 4.3388815 -1.2154827 13
8.2896481 0.44314724 -1.2495538 11
7.616488 -3.0140431 -1.2095674 20
8.269578 4.2792201 -1.2142659 13
8.3010931 0.41325286 -1.2510424 10
7.523828 -3.0077932 -1.1921774 21
8.2535706 4.2326584 -1.216216 13
8.292654 0.37801757 -1.2510027 10
7.4704676 -3.0228157 -1.1814076 21
8.255393 4.1954489 -1.2174984 13
8.2791052 0.34844485 -1.2487675 10
